0.001523 -3.448039 1.185852 
-0.035477 -3.411039 1.146852 
-0.032477 -3.425039 1.156852 
-0.055477 -3.406039 1.135852 
-0.045477 -3.414039 1.145852 
-0.031477 -3.433039 1.165852 
0.041523 -3.334039 1.147852 
0.023523 -3.466039 1.205852 
0.541523 -3.657039 0.800852 
0.557523 -3.657039 0.812852 
0.557523 -3.656039 0.821852 
0.547523 -3.657039 0.810852 
0.568523 -3.650039 0.828852 
0.576523 -3.646039 0.837852 
0.587523 -3.649039 0.847852 
0.598523 -3.645039 0.866852 
0.576523 -3.647039 0.846852 
0.586523 -3.643039 0.857852 
0.474523 -3.681039 0.745852 
0.485523 -3.675039 0.752852 
0.503523 -3.680039 0.761852 
0.503523 -3.676039 0.770852 
0.492523 -3.677039 0.760852 
0.514523 -3.669039 0.776852 
0.520523 -3.666039 0.783852 
0.530523 -3.660039 0.793852 
0.614523 -3.644039 0.883852 
0.604523 -3.646039 0.874852 
0.614523 -3.640039 0.892852 
0.615523 -3.646039 0.902852 
0.626523 -3.644039 0.929852 
0.626523 -3.646039 0.938852 
0.626523 -3.647039 0.957852 
0.625523 -3.641039 0.900852 
0.624523 -3.635039 0.909852 
0.625523 -3.642039 0.919852 
0.632523 -3.637039 0.921852 
0.633523 -3.641039 0.930852 
0.633523 -3.645039 0.940852 
0.633523 -3.645039 0.949852 
0.626523 -3.643039 0.948852 
0.039523 -3.325039 1.137852 
0.058523 -3.328039 1.155852 
0.057523 -3.319039 1.165852 
0.050523 -3.321039 1.154852 
0.057523 -3.323039 1.175852 
0.067523 -3.318039 1.185852 
0.079523 -3.315039 1.212852 
0.086523 -3.309039 1.212852 
0.086523 -3.309039 1.222852 
0.079523 -3.311039 1.202852 
-0.053477 -4.283039 1.264852 
-0.064477 -4.277039 1.257852 
-0.053477 -4.282039 1.273852 
-0.052477 -4.286039 1.282852 
-0.052477 -4.285038 1.291852 
-0.187477 -4.180039 1.266852 
-0.187477 -4.181039 1.275852 
-0.187477 -4.180039 1.284852 
-0.181477 -4.173038 1.257852 
-0.188477 -4.176039 1.257852 
-0.183477 -4.166039 1.266852 
-0.180477 -4.179039 1.275852 
-0.180477 -4.179039 1.284852 
-0.185477 -4.190039 1.293852 
-0.186477 -4.184039 1.303852 
-0.178477 -4.184039 1.293852 
-0.179477 -4.183039 1.302852 
-0.178477 -4.186038 1.311852 
-0.177477 -4.192039 1.320852 
-0.177477 -4.190039 1.338852 
-0.166477 -4.188039 1.330852 
-0.166477 -4.188039 1.339852 
-0.166477 -4.190039 1.348852 
-0.177477 -4.188039 1.329852 
-0.164477 -4.195039 1.357852 
-0.166477 -4.188039 1.376852 
-0.186477 -4.149039 1.348852 
-0.163477 -4.201039 1.403852 
-0.163477 -4.202039 1.412852 
-0.165477 -4.194039 1.385852 
-0.164477 -4.198039 1.394852 
-0.162477 -4.204039 1.421852 
-0.162477 -4.205039 1.430852 
-0.162477 -4.205039 1.439852 
-0.154477 -4.191039 1.428852 
-0.143477 -4.209039 1.471852 
-0.150477 -4.209039 1.473852 
-0.149477 -4.211039 1.482852 
-0.149477 -4.211039 1.491852 
-0.148477 -4.217039 1.500852 
-0.148477 -4.217039 1.509852 
-0.144477 -4.206038 1.481852 
-0.143477 -4.211039 1.490852 
-0.142477 -4.215039 1.499852 
-0.141477 -4.217039 1.508852 
-0.159477 -4.216039 1.457852 
-0.151477 -4.203039 1.446852 
-0.150477 -4.206038 1.455852 
-0.150477 -4.207039 1.464852 
-0.172477 -4.159039 1.468852 
-0.106477 -4.074039 1.344852 
-0.105477 -3.950039 1.374852 
-0.105477 -3.952039 1.383852 
-0.142477 -3.951039 1.328852 
-0.141477 -3.956039 1.337852 
-0.132477 -3.950039 1.338852 
-0.150477 -3.952039 1.328852 
-0.165477 -3.937039 1.322852 
-0.121477 -3.952039 1.355852 
-0.115477 -3.948039 1.364852 
-0.167477 -4.132039 1.440852 
-0.143477 -4.165039 1.483852 
-0.193477 -4.064039 1.454852 
-0.192477 -4.069039 1.482852 
-0.093477 -3.952039 1.390852 
-0.094477 -3.947039 1.399852 
-0.088477 -3.938039 1.408852 
-0.063477 -3.952039 1.440852 
-0.075477 -3.948039 1.427852 
-0.075477 -3.951039 1.436852 
-0.057477 -3.947039 1.456852 
-0.057477 -3.947039 1.465852 
-0.048477 -3.945039 1.475852 
-0.063477 -3.947039 1.450852 
-0.036477 -3.949039 1.492852 
-0.048477 -3.945039 1.485852 
-0.038477 -3.943039 1.502852 
-0.037477 -3.943039 1.511852 
-0.403477 -4.020039 1.384852 
-0.418477 -3.959039 1.339852 
-0.418477 -3.960039 1.349852 
-0.405477 -3.967039 1.365852 
-0.417477 -3.965039 1.358852 
-0.416477 -3.967039 1.367852 
-0.415477 -3.970039 1.377852 
-0.402477 -3.976039 1.393852 
-0.403477 -3.974039 1.402852 
-0.403477 -3.974039 1.412852 
-0.414477 -3.974039 1.395852 
-0.414477 -3.974039 1.414852 
-0.414477 -3.974039 1.405852 
-0.414477 -3.977039 1.423852 
-0.413477 -3.978039 1.433852 
-0.403477 -3.974039 1.421852 
-0.403477 -3.974039 1.430852 
-0.413477 -3.977039 1.442852 
-0.402477 -3.976039 1.440852 
-0.402477 -3.977039 1.449852 
-0.412477 -3.980039 1.451852 
-0.413477 -3.980039 1.461852 
-0.401477 -3.978039 1.458852 
-0.412477 -3.982039 1.470852 
-0.401477 -3.981039 1.468852 
-0.401477 -3.980039 1.477852 
-0.393477 -3.985039 1.486852 
-0.394477 -3.981039 1.496852 
-0.400477 -3.984039 1.486852 
-0.400477 -3.983039 1.496852 
-0.399477 -3.985039 1.505852 
-0.394477 -3.980039 1.505852 
-0.229477 -3.953039 1.364852 
-0.272477 -3.918039 1.322852 
-0.211477 -3.898039 1.288852 
-0.205477 -3.881039 1.289852 
-0.179477 -3.919039 1.304852 
-0.177477 -3.928039 1.313852 
-0.200477 -3.908039 1.298852 
-0.219477 -3.892039 1.290852 
-0.234477 -3.881039 1.273852 
-0.221477 -3.887039 1.280852 
-0.233477 -3.885039 1.283852 
-0.268477 -3.866039 1.266852 
-0.217477 -3.872039 1.298852 
-0.280477 -3.882039 1.314852 
-0.200477 -3.854039 1.305852 
-0.215477 -3.786039 1.316852 
-0.407477 -3.930039 1.300852 
-0.405477 -3.941039 1.319852 
-0.411477 -3.941039 1.319852 
-0.406477 -3.936039 1.309852 
-0.404477 -3.943039 1.328852 
-0.410477 -3.945039 1.328852 
-0.403477 -3.949039 1.337852 
-0.409477 -3.949039 1.337852 
-0.407477 -3.956039 1.346852 
-0.406477 -3.959039 1.356852 
-0.277477 -3.826039 1.277852 
-0.276477 -3.775039 1.351852 
-0.279477 -3.764039 1.361852 
-0.279477 -3.764039 1.371852 
-0.300477 -3.760039 1.335852 
-0.290477 -3.765039 1.345852 
-0.210477 -3.933039 1.429852 
-0.223477 -3.839039 1.460852 
-0.245477 -3.773039 1.426852 
-0.236477 -3.780039 1.472852 
-0.147477 -4.219038 1.518852 
-0.140477 -4.224039 1.534852 
-0.140477 -4.222039 1.525852 
-0.141477 -4.218039 1.517852 
-0.140477 -4.222039 1.544852 
-0.140477 -4.223039 1.553852 
-0.139477 -4.228039 1.561852 
-0.138477 -4.230039 1.570852 
-0.130477 -4.225039 1.562852 
-0.130477 -4.227039 1.571852 
-0.137477 -4.236039 1.579852 
-0.129477 -4.228039 1.580852 
-0.136477 -4.240039 1.588852 
-0.129477 -4.229039 1.598852 
-0.130477 -4.226039 1.589852 
-0.127477 -4.240039 1.633852 
-0.129477 -4.230039 1.607852 
-0.129477 -4.231039 1.616852 
-0.128477 -4.235039 1.625852 
-0.116477 -4.241039 1.639852 
-0.127477 -4.238039 1.643852 
-0.115477 -4.242039 1.648852 
-0.127477 -4.237039 1.652852 
-0.126477 -4.242039 1.660852 
-0.126477 -4.242039 1.670852 
-0.125477 -4.245039 1.687852 
-0.115477 -4.242039 1.693852 
-0.125477 -4.247039 1.696852 
-0.130477 -4.223039 1.680852 
-0.125477 -4.248039 1.705852 
-0.124477 -4.249039 1.714852 
-0.113477 -4.253039 1.728852 
-0.123477 -4.256039 1.732852 
-0.124477 -4.249039 1.724852 
-0.113477 -4.250039 1.738852 
-0.114477 -4.249039 1.747852 
-0.114477 -4.249039 1.756852 
-0.146477 -4.153039 1.557852 
-0.381477 -3.991039 1.638852 
-0.399477 -3.988039 1.523852 
-0.394477 -3.981039 1.515852 
-0.393477 -3.987039 1.523852 
-0.400477 -3.984039 1.514852 
-0.399477 -3.987039 1.533852 
-0.393477 -3.986039 1.533852 
-0.393477 -3.986039 1.542852 
-0.399477 -3.987039 1.542852 
-0.399477 -3.988039 1.552852 
-0.398477 -3.989039 1.561852 
-0.392477 -3.987039 1.552852 
-0.392477 -3.988039 1.561852 
-0.398477 -3.990039 1.570852 
-0.392477 -3.990039 1.570852 
-0.398477 -3.991039 1.580852 
-0.397477 -3.993039 1.589852 
-0.391477 -3.992039 1.580852 
-0.392477 -3.989039 1.589852 
-0.397477 -3.994039 1.598852 
-0.397477 -3.995039 1.608852 
-0.391477 -3.992039 1.598852 
-0.391477 -3.991039 1.608852 
-0.397477 -3.993039 1.617852 
-0.390477 -3.994039 1.617852 
-0.384477 -3.982039 1.610852 
-0.397477 -3.993039 1.626852 
-0.397477 -3.994039 1.636852 
-0.391477 -3.992039 1.626852 
-0.390477 -3.994039 1.636852 
-0.409477 -3.990039 1.639852 
-0.381477 -3.992039 1.647852 
-0.380477 -3.997039 1.665852 
-0.389477 -4.001039 1.682852 
-0.379477 -3.998039 1.675852 
-0.380477 -3.996039 1.684852 
-0.389477 -4.001039 1.692852 
-0.388477 -4.003039 1.701852 
-0.380477 -3.996039 1.694852 
-0.379477 -3.998039 1.703852 
-0.388477 -4.005039 1.710852 
-0.377477 -4.006039 1.721852 
-0.378477 -4.002038 1.712852 
-0.378477 -4.003039 1.731852 
-0.367477 -4.001039 1.747852 
-0.388477 -4.003039 1.738852 
-0.378477 -4.005039 1.740852 
-0.378477 -4.005039 1.749852 
-0.365477 -4.011039 1.765852 
-0.377477 -4.008039 1.759852 
-0.376477 -4.010039 1.768852 
-0.367477 -4.000039 1.757852 
-0.390477 -3.997039 1.645852 
-0.396477 -3.998039 1.645852 
-0.390477 -3.996039 1.654852 
-0.396477 -3.998039 1.654852 
-0.420477 -3.989039 1.657852 
-0.389477 -3.999039 1.664852 
-0.389477 -3.999039 1.673852 
-0.427477 -3.990039 1.665852 
-0.394477 -4.004039 1.692852 
-0.427477 -3.991039 1.675852 
-0.438477 -3.993039 1.685852 
-0.439477 -3.989039 1.694852 
-0.450477 -3.990039 1.702852 
-0.449477 -3.991039 1.712852 
-0.456477 -3.992039 1.722852 
-0.394477 -4.002038 1.748852 
-0.477477 -3.991039 1.751852 
-0.484477 -3.992039 1.758852 
-0.467477 -3.992039 1.734852 
-0.214477 -3.837039 1.517852 
-0.374477 -3.975039 1.618852 
-0.384477 -3.978039 1.620852 
-0.370477 -3.991039 1.645852 
-0.363477 -3.989039 1.759852 
0.078523 -3.700039 1.431852 
0.066523 -3.696039 1.431852 
0.067523 -3.702039 1.440852 
0.060523 -3.700039 1.440852 
0.047523 -3.693039 1.431852 
0.059523 -3.698039 1.430852 
0.029523 -3.689039 1.430852 
0.036523 -3.688039 1.432852 
0.089523 -3.698039 1.438852 
-0.093477 -3.722039 1.332852 
-0.077477 -3.658039 1.266852 
-0.090477 -3.642039 1.265852 
-0.098477 -3.644039 1.265852 
-0.090477 -3.644039 1.274852 
-0.098477 -3.645039 1.275852 
-0.078477 -3.653039 1.276852 
-0.078477 -3.652039 1.285852 
-0.090477 -3.645039 1.284852 
-0.097477 -3.646039 1.285852 
-0.090477 -3.644039 1.294852 
-0.098477 -3.645039 1.294852 
-0.090477 -3.644039 1.303852 
-0.097477 -3.645039 1.304852 
-0.107477 -3.654039 1.315852 
-0.097477 -3.647039 1.313852 
-0.097477 -3.649039 1.323852 
-0.079477 -3.647039 1.295852 
-0.080477 -3.641039 1.305852 
-0.105477 -3.663039 1.324852 
-0.096477 -3.649039 1.343852 
-0.090477 -3.644039 1.342852 
-0.096477 -3.649039 1.352852 
-0.090477 -3.644039 1.352852 
-0.087477 -3.656039 1.370852 
-0.107477 -3.653039 1.363852 
-0.096477 -3.652039 1.362852 
-0.089477 -3.645039 1.361852 
-0.085477 -3.668039 1.380852 
-0.107477 -3.651039 1.373852 
-0.107477 -3.650039 1.382852 
-0.095477 -3.653039 1.371852 
-0.096477 -3.648039 1.381852 
-0.069477 -3.631039 1.350852 
-0.081477 -3.635039 1.353852 
-0.069477 -3.631039 1.360852 
-0.069477 -3.629039 1.370852 
-0.080477 -3.638039 1.363852 
-0.069477 -3.631039 1.379852 
-0.080477 -3.637039 1.372852 
-0.080477 -3.635039 1.382852 
-0.181477 -3.660039 1.325852 
-0.176477 -3.654039 1.325852 
-0.118477 -3.649039 1.266852 
-0.108477 -3.646039 1.267852 
-0.124477 -3.651039 1.270852 
-0.118477 -3.649039 1.276852 
-0.125477 -3.644039 1.279852 
-0.136477 -3.651039 1.294852 
-0.147477 -3.652039 1.303852 
-0.110477 -3.636039 1.306852 
-0.116477 -3.655039 1.314852 
-0.155477 -3.651039 1.304852 
-0.166477 -3.652039 1.316852 
-0.119477 -3.640039 1.353852 
-0.109477 -3.641039 1.354852 
-0.111477 -3.772039 1.424852 
-0.127477 -3.747039 1.425852 
0.001523 -3.699039 1.420852 
0.007523 -3.687039 1.421852 
0.005523 -3.678039 1.431852 
-0.002477 -3.679039 1.431852 
0.016523 -3.679039 1.431852 
0.028523 -3.678039 1.440852 
-0.072477 -3.678039 1.400852 
-0.060477 -3.674039 1.416852 
-0.120477 -3.666039 1.414852 
-0.106477 -3.654039 1.392852 
-0.106477 -3.654039 1.402852 
-0.096477 -3.651039 1.391852 
-0.089477 -3.647039 1.390852 
-0.096477 -3.651039 1.400852 
-0.089477 -3.645039 1.400852 
-0.096477 -3.649039 1.410852 
-0.089477 -3.645039 1.409852 
-0.097477 -3.646039 1.420852 
-0.096477 -3.647039 1.429852 
-0.096477 -3.648039 1.439852 
-0.096477 -3.649039 1.449852 
-0.088477 -3.650039 1.448852 
-0.069477 -3.631039 1.389852 
-0.068477 -3.634039 1.398852 
-0.080477 -3.638039 1.392852 
-0.078477 -3.646039 1.411852 
-0.061477 -3.632039 1.407852 
-0.068477 -3.635039 1.408852 
-0.061477 -3.636039 1.416852 
-0.046477 -3.658039 1.426852 
-0.034477 -3.661039 1.432852 
-0.024477 -3.625039 1.425852 
-0.061477 -3.636039 1.426852 
-0.068477 -3.635039 1.427852 
-0.079477 -3.639039 1.421852 
-0.091477 -3.638039 1.419852 
-0.080477 -3.639039 1.430852 
-0.061477 -3.635039 1.435852 
-0.068477 -3.636039 1.437852 
-0.060477 -3.637039 1.445852 
-0.068477 -3.636039 1.447852 
-0.079477 -3.641039 1.440852 
-0.088477 -3.652039 1.458852 
-0.095477 -3.652039 1.458852 
-0.088477 -3.650039 1.467852 
-0.087477 -3.653039 1.477852 
-0.094477 -3.658039 1.477852 
-0.095477 -3.654039 1.468852 
-0.093477 -3.662039 1.496852 
-0.087477 -3.655039 1.486852 
-0.086477 -3.657039 1.496852 
-0.086477 -3.658039 1.505852 
-0.086477 -3.659039 1.515852 
-0.061477 -3.635039 1.455852 
-0.067477 -3.637039 1.456852 
-0.063477 -3.656039 1.513852 
-0.251477 -3.745039 1.408852 
-0.251477 -3.744039 1.418852 
-0.244477 -3.742039 1.426852 
-0.244477 -3.745039 1.445852 
-0.244477 -3.742039 1.436852 
-0.170477 -3.712039 1.449852 
-0.147477 -3.685039 1.428852 
-0.157477 -3.694039 1.440852 
-0.156477 -3.698039 1.449852 
-0.166477 -3.701039 1.449852 
-0.146477 -3.689039 1.438852 
-0.139477 -3.685039 1.437852 
-0.188477 -3.728039 1.478852 
-0.246477 -3.734039 1.455852 
-0.239477 -3.724039 1.465852 
-0.189477 -3.726039 1.497852 
-0.189477 -3.725039 1.488852 
-0.195477 -3.731039 1.497852 
-0.188477 -3.730039 1.507852 
-0.195477 -3.732039 1.507852 
-0.237477 -3.733039 1.484852 
-0.237477 -3.730039 1.494852 
-0.237477 -3.732039 1.513852 
-0.165477 -3.706039 1.458852 
-0.171477 -3.707039 1.459852 
-0.180477 -3.717039 1.470852 
-0.180477 -3.720039 1.479852 
-0.170477 -3.711039 1.468852 
-0.178477 -3.724039 1.489852 
-0.250477 -3.671039 1.477852 
-0.131477 -3.672039 1.409852 
-0.131477 -3.673039 1.418852 
-0.120477 -3.665039 1.404852 
-0.115477 -3.658039 1.391852 
-0.115477 -3.657039 1.401852 
-0.116477 -3.656039 1.411852 
-0.107477 -3.649039 1.411852 
-0.152477 -3.663039 1.420852 
-0.107477 -3.649039 1.421852 
-0.121477 -3.629039 1.421852 
-0.175477 -3.608039 1.424852 
-0.176477 -3.604039 1.434852 
-0.187477 -3.598039 1.433852 
-0.196477 -3.589039 1.434852 
-0.208477 -3.583039 1.436852 
-0.049477 -3.547039 1.427852 
-0.067477 -3.484039 1.430852 
-0.008477 -3.942039 1.546852 
-0.008477 -3.940039 1.556852 
-0.019477 -3.944039 1.521852 
-0.020477 -3.941039 1.531852 
-0.040477 -3.892039 1.513852 
-0.029477 -3.895039 1.543852 
-0.048477 -3.850039 1.525852 
-0.033477 -3.769039 1.754852 
-0.021477 -3.778039 1.764852 
-0.076477 -3.654039 1.516852 
-0.085477 -3.662039 1.544852 
-0.072477 -3.676039 1.564852 
-0.073477 -3.668039 1.574852 
-0.085477 -3.661039 1.553852 
-0.085477 -3.662039 1.563852 
-0.094477 -3.658039 1.554852 
-0.094477 -3.655039 1.564852 
-0.094477 -3.654039 1.574852 
-0.065477 -3.650039 1.523852 
-0.050477 -3.723039 1.625852 
-0.072477 -3.673039 1.583852 
-0.071477 -3.676039 1.592852 
-0.072477 -3.671039 1.602852 
-0.072477 -3.671039 1.612852 
-0.072477 -3.670039 1.622852 
-0.072477 -3.671039 1.631852 
-0.072477 -3.673039 1.641852 
-0.194477 -3.734039 1.516852 
-0.194477 -3.736039 1.526852 
-0.205477 -3.743039 1.529852 
-0.204477 -3.745039 1.538852 
-0.235477 -3.738039 1.541852 
-0.236477 -3.733039 1.532852 
-0.225477 -3.733039 1.538852 
-0.227477 -3.773039 1.549852 
-0.204477 -3.748039 1.548852 
-0.204477 -3.748039 1.557852 
-0.203477 -3.750039 1.567852 
-0.203477 -3.750039 1.576852 
-0.225477 -3.733039 1.547852 
-0.225477 -3.731039 1.557852 
-0.226477 -3.729039 1.567852 
-0.218477 -3.730039 1.577852 
-0.226477 -3.726039 1.577852 
-0.203477 -3.752039 1.586852 
-0.190477 -3.753039 1.592852 
-0.190477 -3.753039 1.602852 
-0.203477 -3.751039 1.596852 
-0.202477 -3.754039 1.605852 
-0.226477 -3.726039 1.586852 
-0.226477 -3.728039 1.596852 
-0.226477 -3.728039 1.605852 
-0.190477 -3.751039 1.611852 
-0.203477 -3.753039 1.615852 
-0.191477 -3.749039 1.621852 
-0.184477 -3.745039 1.622852 
-0.190477 -3.752039 1.630852 
-0.190477 -3.753039 1.640852 
-0.186477 -3.738039 1.631852 
-0.225477 -3.730039 1.615852 
-0.224477 -3.736039 1.624852 
-0.224477 -3.736039 1.634852 
-0.177477 -3.728039 1.632852 
-0.183477 -3.750039 1.650852 
-0.183477 -3.752039 1.659852 
-0.182477 -3.753039 1.669852 
-0.187477 -3.764039 1.678852 
-0.182477 -3.755039 1.678852 
-0.182477 -3.755039 1.688852 
-0.170477 -3.759039 1.697852 
-0.181477 -3.757039 1.697852 
-0.181477 -3.759039 1.707852 
-0.181477 -3.758039 1.716852 
-0.171477 -3.754039 1.708852 
-0.171477 -3.756039 1.717852 
-0.171477 -3.757039 1.727852 
-0.170477 -3.759039 1.736852 
-0.170477 -3.758039 1.746852 
-0.158477 -3.761039 1.762852 
-0.170477 -3.760039 1.765852 
-0.170477 -3.758039 1.755852 
-0.044477 -3.753039 1.652852 
-0.042477 -3.762039 1.661852 
-0.071477 -3.675039 1.650852 
-0.069477 -3.690039 1.659852 
-0.071477 -3.676039 1.670852 
-0.071477 -3.678039 1.679852 
-0.070477 -3.679039 1.689852 
-0.059477 -3.675039 1.705852 
-0.070477 -3.680039 1.698852 
-0.061477 -3.664039 1.677852 
-0.037477 -3.747039 1.737852 
-0.041477 -3.730039 1.728852 
-0.051477 -3.714039 1.722852 
-0.053477 -3.703039 1.713852 
-0.035477 -3.760039 1.745852 
-0.071477 -3.678039 1.708852 
-0.082477 -3.675039 1.707852 
-0.070477 -3.681039 1.718852 
-0.057477 -3.684039 1.733852 
-0.070477 -3.681039 1.727852 
-0.070477 -3.679039 1.737852 
-0.069477 -3.686039 1.746852 
-0.057477 -3.685039 1.743852 
-0.079477 -3.687039 1.764852 
-0.190477 -3.751039 1.649852 
-0.190477 -3.753039 1.659852 
-0.189477 -3.755039 1.668852 
-0.103477 -4.264039 1.874852 
-0.101477 -4.270039 1.882852 
-0.093477 -4.262039 1.883852 
-0.102477 -4.269039 1.891852 
-0.094477 -4.261039 1.892852 
-0.093477 -4.265038 1.901852 
-0.102477 -4.267039 1.900852 
-0.093477 -4.262039 1.910852 
-0.093477 -4.262039 1.919852 
-0.093477 -4.263039 1.928852 
-0.092477 -4.267039 1.937852 
-0.092477 -4.268039 1.946852 
-0.080477 -4.269039 1.961852 
-0.081477 -4.266039 1.970852 
-0.081477 -4.264039 1.980852 
-0.081477 -4.265038 1.989852 
-0.080477 -4.267039 1.998852 
-0.075477 -4.261039 1.998852 
-0.073477 -4.267039 2.007852 
-0.080477 -4.268039 2.007852 
-0.074477 -4.265038 2.016852 
-0.081477 -4.261039 2.016852 
-0.080477 -4.271039 2.025852 
-0.073477 -4.267039 2.025852 
-0.113477 -4.250039 1.765852 
-0.105477 -4.255039 1.774852 
-0.113477 -4.253039 1.774852 
-0.105477 -4.253039 1.784852 
-0.113477 -4.253039 1.783852 
-0.106477 -4.253039 1.793852 
-0.112477 -4.255039 1.792852 
-0.105477 -4.253039 1.802852 
-0.112477 -4.257039 1.801852 
-0.111477 -4.258039 1.810852 
-0.105477 -4.255039 1.811852 
-0.105477 -4.254039 1.820852 
-0.112477 -4.257039 1.819852 
-0.105477 -4.254039 1.829852 
-0.105477 -4.254039 1.838852 
-0.104477 -4.258039 1.847852 
-0.104477 -4.258039 1.856852 
-0.104477 -4.260039 1.865852 
-0.365477 -4.010039 1.775852 
-0.365477 -4.009039 1.784852 
-0.377477 -4.008039 1.777852 
-0.375477 -4.014039 1.796852 
-0.359477 -4.004039 1.795852 
-0.365477 -4.008039 1.794852 
-0.377477 -4.007039 1.787852 
-0.356477 -4.017039 1.822852 
-0.374477 -4.018039 1.805852 
-0.373477 -4.023039 1.814852 
-0.364477 -4.012039 1.803852 
-0.364477 -4.012039 1.812852 
-0.375477 -4.016039 1.833852 
-0.364477 -4.014039 1.821852 
-0.364477 -4.012039 1.831852 
-0.357477 -4.011039 1.832852 
-0.364477 -4.014039 1.840852 
-0.364477 -4.014039 1.850852 
-0.363477 -4.015038 1.859852 
-0.355477 -4.017039 1.879852 
-0.362477 -4.019039 1.877852 
-0.363477 -4.016039 1.868852 
-0.363477 -4.016039 1.887852 
-0.363477 -4.016039 1.896852 
-0.356477 -4.017039 1.907852 
-0.363477 -4.016039 1.906852 
-0.362477 -4.020039 1.924852 
-0.362477 -4.018039 1.915852 
-0.356477 -4.014039 1.916852 
-0.357477 -4.013039 1.926852 
-0.361477 -4.023039 1.933852 
-0.362477 -4.021039 1.943852 
-0.356477 -4.013039 1.935852 
-0.356477 -4.014039 1.945852 
-0.356477 -4.015038 1.954852 
-0.357477 -4.011039 1.964852 
-0.357477 -4.011039 1.973852 
-0.356477 -4.012039 1.982852 
-0.346477 -4.007039 1.993852 
-0.346477 -4.008039 2.002852 
-0.347477 -4.006039 2.012852 
-0.347477 -4.003039 2.021852 
-0.346477 -4.008039 2.040852 
-0.336477 -4.000039 2.037852 
-0.336477 -4.002038 2.046852 
-0.336477 -4.000039 2.056852 
-0.329477 -4.001039 2.054852 
-0.347477 -4.004039 2.031852 
-0.328477 -4.003039 2.064852 
-0.329477 -4.001039 2.073852 
-0.328477 -4.002038 2.082852 
-0.326477 -4.011039 2.100852 
-0.327477 -4.009039 2.091852 
-0.335477 -3.933039 2.263852 
-0.348477 -3.875039 2.280852 
0.000523 -3.801039 1.797852 
-0.020477 -3.785039 1.773852 
0.024523 -3.813039 1.824852 
0.010523 -3.804039 1.798852 
-0.000477 -3.794039 1.788852 
-0.008477 -3.788039 1.780852 
0.011523 -3.804039 1.808852 
0.033523 -3.815039 1.833852 
0.045523 -3.825039 1.842852 
0.034523 -3.824039 1.841852 
0.045523 -3.825039 1.852852 
-0.159477 -3.758039 1.772852 
-0.159477 -3.758039 1.782852 
-0.170477 -3.759039 1.774852 
-0.171477 -3.754039 1.784852 
-0.153477 -3.758039 1.791852 
-0.170477 -3.760039 1.793852 
-0.159477 -3.756039 1.792852 
-0.159477 -3.759039 1.801852 
-0.182477 -3.753039 1.793852 
-0.151477 -3.764039 1.810852 
-0.169477 -3.764039 1.803852 
-0.159477 -3.759039 1.811852 
-0.169477 -3.764039 1.831852 
-0.152477 -3.758039 1.820852 
-0.159477 -3.758039 1.820852 
-0.152477 -3.757039 1.829852 
-0.159477 -3.759039 1.830852 
-0.152477 -3.758039 1.839852 
-0.159477 -3.759039 1.839852 
-0.152477 -3.761039 1.848852 
-0.158477 -3.760039 1.849852 
-0.159477 -3.759039 1.859852 
-0.160477 -3.753039 1.869852 
-0.152477 -3.758039 1.877852 
-0.170477 -3.756039 1.871852 
-0.151477 -3.761039 1.886852 
-0.153477 -3.756039 1.858852 
-0.143477 -3.755039 1.878852 
-0.132477 -3.749039 1.876852 
-0.143477 -3.756039 1.888852 
-0.153477 -3.755039 1.868852 
-0.143477 -3.752039 1.869852 
-0.143477 -3.753039 1.897852 
-0.154477 -3.750039 1.897852 
-0.086477 -3.691039 1.793852 
-0.079477 -3.686039 1.774852 
-0.079477 -3.685039 1.783852 
-0.086477 -3.690039 1.803852 
-0.086477 -3.689039 1.813852 
-0.086477 -3.689039 1.823852 
-0.085477 -3.694039 1.832852 
-0.096477 -3.695039 1.843852 
-0.096477 -3.696039 1.852852 
-0.096477 -3.692039 1.862852 
-0.097477 -3.690039 1.872852 
-0.097477 -3.689039 1.882852 
-0.097477 -3.687039 1.892852 
-0.189477 -3.757039 1.803852 
-0.151477 -3.761039 1.906852 
-0.151477 -3.764039 1.915852 
-0.143477 -3.755039 1.907852 
-0.142477 -3.756039 1.917852 
-0.143477 -3.752039 1.926852 
-0.144477 -3.750039 1.936852 
-0.144477 -3.749039 1.946852 
-0.143477 -3.751039 1.955852 
-0.144477 -3.749039 1.965852 
-0.143477 -3.752039 1.975852 
-0.143477 -3.753039 1.984852 
-0.143477 -3.754039 1.994852 
-0.143477 -3.751039 2.003852 
-0.144477 -3.748039 2.014852 
-0.144477 -3.744039 2.023852 
-0.097477 -3.689039 1.901852 
-0.097477 -3.686039 1.911852 
-0.098477 -3.682039 1.921852 
-0.098477 -3.683039 1.931852 
-0.098477 -3.681039 1.941852 
-0.088477 -3.678039 1.949852 
-0.089477 -3.674039 1.960852 
-0.089477 -3.672039 1.969852 
-0.090477 -3.668039 1.979852 
-0.091477 -3.663039 1.989852 
-0.083477 -3.661039 1.999852 
-0.084477 -3.660039 2.008852 
-0.084477 -3.654039 2.019852 
-0.145477 -3.744039 2.033852 
-0.145477 -3.742039 2.043852 
-0.145477 -3.739039 2.053852 
-0.145477 -3.741039 2.063852 
-0.145477 -3.740039 2.072852 
-0.155477 -3.741039 2.081852 
-0.156477 -3.737039 2.091852 
-0.156477 -3.738039 2.101852 
-0.146477 -3.734039 2.102852 
-0.157477 -3.729039 2.112852 
-0.158477 -3.727039 2.122852 
-0.085477 -3.654039 2.028852 
-0.085477 -3.653039 2.038852 
-0.158477 -3.725039 2.132852 
-0.159477 -3.721039 2.142852 
-0.158477 -3.724039 2.151852 
-0.150477 -3.716039 2.153852 
-0.133477 -3.699039 2.219852 
-0.124477 -3.689039 2.259852 
-0.151477 -3.712039 2.163852 
-0.151477 -3.711039 2.173852 
-0.141477 -3.699039 2.201852 
-0.141477 -3.701039 2.210852 
-0.141477 -3.701039 2.220852 
-0.135477 -3.693039 2.229852 
-0.135477 -3.690039 2.240852 
-0.135477 -3.691039 2.249852 
-0.134477 -3.694039 2.258852 
-0.295477 -4.107038 2.362852 
-0.305477 -4.063039 2.406852 
-0.310477 -4.037039 2.391852 
-0.317477 -4.009039 2.367852 
-0.326477 -3.968039 2.392852 
-0.341477 -3.904039 2.286852 
-0.352477 -3.858039 2.302852 
-0.356477 -3.842039 2.314852 
-0.353477 -3.855039 2.322852 
-0.355477 -3.845039 2.333852 
-0.338477 -3.919039 2.361852 
-0.349477 -3.873039 2.358852 
-0.367477 -3.835039 2.372852 
-0.367477 -3.833039 2.402852 
-0.357477 -3.837039 2.344852 
-0.368477 -3.829039 2.334852 
-0.359477 -3.829039 2.355852 
-0.369477 -3.827039 2.364852 
-0.365477 -3.842039 2.429852 
-0.253477 -3.592039 0.689852 
-0.259477 -3.596039 0.698852 
-0.272477 -3.593039 0.712852 
-0.289477 -3.558039 0.720852 
-0.243477 -3.590039 0.631852 
-0.246477 -3.576039 0.640852 
-0.232477 -3.581039 0.637852 
-0.233477 -3.577039 0.647852 
-0.247477 -3.572039 0.650852 
-0.249477 -3.564039 0.659852 
-0.259477 -3.561039 0.659852 
-0.250477 -3.554039 0.669852 
-0.261477 -3.556039 0.668852 
-0.261477 -3.551039 0.678852 
-0.270477 -3.548039 0.677852 
-0.271477 -3.542039 0.686852 
-0.283477 -3.538039 0.690852 
-0.284477 -3.536039 0.699852 
-0.468477 -3.878039 1.198852 
-0.479477 -3.878039 1.207852 
-0.477477 -3.887039 1.216852 
-0.485477 -3.883039 1.217852 
-0.484477 -3.887039 1.226852 
-0.444477 -3.776039 1.256852 
-0.453477 -3.767039 1.256852 
-0.455477 -3.759039 1.228852 
-0.455477 -3.759039 1.237852 
-0.455477 -3.759039 1.247852 
-0.289477 -3.639039 0.813852 
-0.307477 -3.614039 0.841852 
-0.277477 -3.608039 0.858852 
-0.278477 -3.603039 0.867852 
-0.314477 -3.616039 0.861852 
-0.286477 -3.597039 0.868852 
-0.315477 -3.469039 0.816852 
-0.326477 -3.472039 0.818852 
-0.340477 -3.461039 0.846852 
-0.342477 -3.453039 0.856852 
-0.343477 -3.447039 0.866852 
-0.351477 -3.448039 0.867852 
-0.345477 -3.441039 0.876852 
-0.352477 -3.444039 0.876852 
-0.333477 -3.436039 0.857852 
-0.299477 -3.593039 0.880852 
-0.286477 -3.596039 0.878852 
-0.300477 -3.587039 0.890852 
-0.301477 -3.585039 0.900852 
-0.302477 -3.577039 0.919852 
-0.314477 -3.581039 0.908852 
-0.313477 -3.581039 0.918852 
-0.324477 -3.573039 0.918852 
-0.315477 -3.571039 0.927852 
-0.324477 -3.569039 0.928852 
-0.325477 -3.566039 0.938852 
-0.319477 -3.554039 0.937852 
-0.337477 -3.561039 0.940852 
-0.345477 -3.601039 1.000852 
-0.326477 -3.561039 0.947852 
-0.324477 -3.567039 0.957852 
-0.324477 -3.570039 0.967852 
-0.337477 -3.561039 0.950852 
-0.346477 -3.564039 0.950852 
-0.348477 -3.556039 0.959852 
-0.357477 -3.546039 0.960852 
-0.349477 -3.552039 0.969852 
-0.357477 -3.549039 0.970852 
-0.338477 -3.556039 0.960852 
-0.345477 -3.528039 0.969852 
-0.323477 -3.575039 0.977852 
-0.322477 -3.575039 0.996852 
-0.324477 -3.566039 0.986852 
-0.355477 -3.557039 0.980852 
-0.365477 -3.563039 0.992852 
-0.350477 -3.544039 0.979852 
-0.352477 -3.538039 0.988852 
-0.371477 -3.538039 1.001852 
-0.333477 -3.493039 0.896852 
-0.359477 -3.465039 0.909852 
-0.345477 -3.438039 0.885852 
-0.353477 -3.440039 0.886852 
-0.354477 -3.435039 0.896852 
-0.362477 -3.452039 0.919852 
-0.364477 -3.439039 0.928852 
-0.339477 -3.409039 0.936852 
-0.361477 -3.452039 0.988852 
-0.363477 -3.445039 0.978852 
-0.380477 -3.410039 1.007852 
-0.371477 -3.407039 0.997852 
-0.372477 -3.404039 1.007852 
-0.154477 -3.483039 0.867852 
-0.145477 -3.474039 0.877852 
-0.135477 -3.469039 0.876852 
-0.136477 -3.464039 0.885852 
-0.147477 -3.466039 0.887852 
-0.137477 -3.456039 0.895852 
-0.132477 -3.446039 0.904852 
-0.149477 -3.453039 0.896852 
-0.150477 -3.449039 0.906852 
-0.139477 -3.446039 0.905852 
-0.140477 -3.440039 0.915852 
-0.142477 -3.431039 0.924852 
-0.133477 -3.437039 0.914852 
-0.134477 -3.432039 0.924852 
-0.135477 -3.424039 0.933852 
-0.114477 -3.412039 0.942852 
-0.108477 -3.407039 0.930852 
-0.116477 -3.405039 0.931852 
-0.143477 -3.425039 0.934852 
-0.152477 -3.438039 0.975852 
-0.127477 -3.414039 0.945852 
-0.114477 -3.415039 0.951852 
-0.127477 -3.411039 0.954852 
-0.136477 -3.421039 0.943852 
-0.144477 -3.419039 0.944852 
-0.146477 -3.410039 0.954852 
-0.138477 -3.412039 0.953852 
-0.139477 -3.405039 0.963852 
-0.157477 -3.411039 0.965852 
-0.147477 -3.406039 0.963852 
-0.141477 -3.397039 0.973852 
-0.129477 -3.399039 0.964852 
-0.130477 -3.396039 0.974852 
-0.142477 -3.391039 0.983852 
-0.142477 -3.389039 0.992852 
-0.131477 -3.390039 0.984852 
-0.132477 -3.386039 0.994852 
-0.132477 -3.386039 1.004852 
-0.116477 -3.365039 0.979852 
-0.106477 -3.359039 0.980852 
-0.330477 -3.635039 1.038852 
-0.342477 -3.537039 1.038852 
-0.306477 -3.608039 1.113852 
-0.300477 -3.582039 1.124852 
-0.342477 -3.535039 1.077852 
-0.320477 -3.546039 1.103852 
-0.340477 -3.543039 1.106852 
-0.371477 -3.537039 1.011852 
-0.371477 -3.535039 1.021852 
-0.360477 -3.533039 1.009852 
-0.359477 -3.535039 1.018852 
-0.359477 -3.537039 1.028852 
-0.355477 -3.480039 1.057852 
-0.374477 -3.470039 1.058852 
-0.381477 -3.404039 1.017852 
-0.380477 -3.408039 1.027852 
-0.375477 -3.463039 1.068852 
-0.376477 -3.426039 1.057852 
-0.380477 -3.407039 1.067852 
-0.372477 -3.404039 1.017852 
-0.372477 -3.405039 1.027852 
-0.344477 -3.437039 1.084852 
-0.388477 -3.404039 1.087852 
-0.377477 -3.453039 1.117852 
-0.381477 -3.404039 1.107852 
-0.339477 -3.403039 1.085852 
-0.351477 -3.404039 1.094852 
-0.384477 -3.392039 1.087852 
-0.336477 -3.361039 1.102852 
-0.373477 -3.396039 1.117852 
-0.374477 -3.392039 1.126852 
-0.348477 -3.362039 1.105852 
-0.300477 -3.583039 1.134852 
-0.299477 -3.585039 1.143852 
-0.284477 -3.600039 1.151852 
-0.283477 -3.603039 1.160852 
-0.280477 -3.616039 1.170852 
-0.279477 -3.622039 1.180852 
-0.273477 -3.619039 1.178852 
-0.270477 -3.629039 1.188852 
-0.275477 -3.607039 1.169852 
-0.318477 -3.555039 1.172852 
-0.256477 -3.451039 1.194852 
-0.251477 -3.438039 1.194852 
-0.331477 -3.493039 1.143852 
-0.374477 -3.432039 1.136852 
-0.349477 -3.412039 1.153852 
-0.373477 -3.394039 1.137852 
-0.385477 -3.384039 1.147852 
-0.375477 -3.385039 1.147852 
-0.385477 -3.383039 1.156852 
-0.390477 -3.394039 1.167852 
-0.384477 -3.387039 1.166852 
-0.376477 -3.380039 1.157852 
-0.377477 -3.375039 1.167852 
-0.351477 -3.346039 1.155852 
-0.385477 -3.382039 1.176852 
-0.377477 -3.375039 1.177852 
-0.385477 -3.381039 1.186852 
-0.377477 -3.374039 1.187852 
-0.377477 -3.375039 1.197852 
-0.364477 -3.476039 1.254852 
-0.364477 -3.434039 1.255852 
-0.378477 -3.373039 1.217852 
-0.378477 -3.370039 1.226852 
-0.378477 -3.371039 1.237852 
-0.131477 -3.389039 1.014852 
-0.122477 -3.367039 1.020852 
-0.130477 -3.394039 1.024852 
-0.131477 -3.388039 1.034852 
-0.130477 -3.393039 1.053852 
-0.130477 -3.391039 1.043852 
-0.133477 -3.375039 1.063852 
-0.151477 -3.341039 1.012852 
-0.159477 -3.345039 1.022852 
-0.149477 -3.353039 1.062852 
-0.121477 -3.441039 1.073852 
-0.119477 -3.448039 1.083852 
-0.148477 -3.396039 1.082852 
-0.155477 -3.362039 1.072852 
-0.150477 -3.347039 1.072852 
-0.184477 -3.360039 1.096852 
-0.197477 -3.355039 1.111852 
-0.186477 -3.349039 1.106852 
-0.124477 -3.359039 1.030852 
-0.117477 -3.359039 1.039852 
-0.046477 -3.356039 1.067852 
-0.066477 -3.351039 1.066852 
-0.058477 -3.348039 1.066852 
-0.088477 -3.355039 1.047852 
-0.094477 -3.355039 1.047852 
-0.106477 -3.355039 1.039852 
-0.118477 -3.352039 1.068852 
-0.078477 -3.350039 1.058852 
-0.089477 -3.348039 1.057852 
-0.125477 -3.353039 1.040852 
-0.125477 -3.351039 1.050852 
-0.120477 -3.343039 1.048852 
-0.126477 -3.347039 1.060852 
-0.126477 -3.344039 1.070852 
-0.121477 -3.337039 1.059852 
-0.116477 -3.303039 1.059852 
-0.110477 -3.272039 1.067852 
-0.106477 -3.261039 1.067852 
-0.099477 -3.240039 1.068852 
-0.090477 -3.378039 1.097852 
-0.046477 -3.352039 1.077852 
-0.103477 -3.370039 1.089852 
-0.070477 -3.393039 1.118852 
-0.081477 -3.390039 1.116852 
-0.088477 -3.384039 1.107852 
-0.082477 -3.384039 1.106852 
-0.070477 -3.391039 1.127852 
-0.080477 -3.394039 1.126852 
-0.035477 -3.345039 1.076852 
-0.126477 -3.349039 1.080852 
-0.120477 -3.341039 1.078852 
-0.127477 -3.340039 1.100852 
-0.120477 -3.338039 1.088852 
-0.127477 -3.339039 1.090852 
-0.120477 -3.337039 1.098852 
-0.154477 -3.326039 1.082852 
-0.127477 -3.342039 1.110852 
-0.120477 -3.336039 1.108852 
-0.120477 -3.338039 1.118852 
-0.127477 -3.342039 1.120852 
-0.120477 -3.338039 1.128852 
-0.104477 -3.267039 1.076852 
-0.215477 -3.359039 1.132852 
-0.209477 -3.353039 1.131852 
-0.216477 -3.316039 1.122852 
-0.248477 -3.262039 1.125852 
-0.259477 -3.259039 1.134852 
-0.233477 -3.274039 1.123852 
-0.250477 -3.253039 1.135852 
-0.120477 -3.336039 1.138852 
-0.120477 -3.337039 1.148852 
-0.120477 -3.336039 1.158852 
-0.109477 -3.336039 1.159852 
-0.109477 -3.334039 1.169852 
-0.120477 -3.335039 1.168852 
-0.120477 -3.337039 1.178852 
-0.120477 -3.337039 1.188852 
-0.120477 -3.336039 1.198852 
-0.109477 -3.333039 1.179852 
-0.110477 -3.332039 1.189852 
-0.110477 -3.332039 1.199852 
-0.110477 -3.332039 1.209852 
-0.110477 -3.330039 1.219852 
-0.110477 -3.329039 1.229852 
-0.110477 -3.331039 1.239852 
-0.110477 -3.328039 1.249852 
-0.110477 -3.327039 1.259852 
-0.243477 -3.367039 1.144852 
-0.238477 -3.360039 1.144852 
-0.238477 -3.362039 1.154852 
-0.236477 -3.368039 1.164852 
-0.244477 -3.366039 1.164852 
-0.242477 -3.374039 1.174852 
-0.236477 -3.368039 1.173852 
-0.265477 -3.373039 1.186852 
-0.255477 -3.365039 1.176852 
-0.228477 -3.359039 1.144852 
-0.272477 -3.376039 1.205852 
-0.286477 -3.370039 1.218852 
-0.287477 -3.366039 1.229852 
-0.287477 -3.363039 1.239852 
-0.286477 -3.367039 1.249852 
-0.396477 -3.370039 1.097852 
-0.388477 -3.371039 1.097852 
-0.405477 -3.329039 1.108852 
-0.387477 -3.375039 1.196852 
-0.387477 -3.374039 1.207852 
-0.378477 -3.369039 1.206852 
-0.388477 -3.371039 1.217852 
-0.388477 -3.369039 1.227852 
-0.396477 -3.367039 1.227852 
-0.388477 -3.367039 1.237852 
-0.379477 -3.367039 1.247852 
-0.388477 -3.368039 1.247852 
-0.353477 -3.337039 1.165852 
-0.050477 -3.225039 1.087852 
-0.092477 -3.214039 1.076852 
-0.104477 -3.213039 1.078852 
-0.089477 -3.182039 1.086852 
-0.084477 -3.151039 1.097852 
-0.076477 -3.123039 1.086852 
-0.073477 -3.137039 1.096852 
-0.075477 -3.126039 1.106852 
-0.089477 -3.123039 1.107852 
-0.060477 -3.113039 1.118852 
-0.071477 -3.112039 1.118852 
-0.061477 -3.105039 1.128852 
-0.073477 -3.099039 1.128852 
-0.030477 -3.208039 1.197852 
-0.034477 -3.186039 1.187852 
-0.025477 -3.131039 1.189852 
-0.065477 -3.085039 1.138852 
-0.065477 -3.081039 1.149852 
-0.053477 -3.087039 1.138852 
-0.056477 -3.066039 1.158852 
-0.057477 -3.060039 1.168852 
-0.058477 -3.057039 1.179852 
-0.053477 -3.042039 1.180852 
-0.046477 -3.016039 1.201852 
-0.069477 -3.059039 1.231852 
-0.070477 -3.055039 1.241852 
-0.070477 -3.054039 1.251852 
-0.070477 -3.052039 1.261852 
-0.443477 -3.782039 1.266852 
-0.453477 -3.767039 1.266852 
-0.467477 -3.761039 1.269852 
-0.484477 -3.762039 1.276852 
-0.479477 -3.755039 1.277852 
-0.486477 -3.755039 1.286852 
-0.499477 -3.752039 1.287852 
-0.510477 -3.753039 1.295852 
-0.511477 -3.746039 1.305852 
-0.519477 -3.744039 1.306852 
-0.531477 -3.741039 1.318852 
-0.541477 -3.739039 1.325852 
-0.549477 -3.738039 1.333852 
-0.540477 -3.742039 1.335852 
-0.341477 -3.575039 1.331852 
-0.338477 -3.550039 1.341852 
-0.312477 -3.386039 1.380852 
-0.325477 -3.552039 1.515852 
-0.319477 -3.539039 1.515852 
-0.220477 -3.582039 1.436852 
-0.229477 -3.573039 1.446852 
-0.221477 -3.574039 1.446852 
-0.241477 -3.573039 1.459852 
-0.253477 -3.567039 1.459852 
-0.264477 -3.551039 1.469852 
-0.379477 -3.405039 1.395852 
-0.376477 -3.374039 1.406852 
-0.372477 -3.390039 1.485852 
-0.099477 -3.324039 1.266852 
-0.110477 -3.326039 1.269852 
-0.099477 -3.323039 1.276852 
-0.111477 -3.325039 1.279852 
-0.099477 -3.323039 1.286852 
-0.111477 -3.325039 1.289852 
-0.099477 -3.323039 1.296852 
-0.110477 -3.327039 1.299852 
-0.110477 -3.327039 1.309852 
-0.100477 -3.320039 1.306852 
-0.099477 -3.321039 1.316852 
-0.099477 -3.319039 1.326852 
-0.099477 -3.324039 1.336852 
-0.092477 -3.323039 1.336852 
-0.093477 -3.317039 1.346852 
-0.100477 -3.316039 1.346852 
-0.093477 -3.317039 1.356852 
-0.100477 -3.317039 1.356852 
-0.100477 -3.316039 1.366852 
-0.094477 -3.312039 1.366852 
-0.101477 -3.313039 1.376852 
-0.094477 -3.312039 1.376852 
-0.100477 -3.312039 1.386852 
-0.094477 -3.310039 1.386852 
-0.298477 -3.364039 1.268852 
-0.299477 -3.358039 1.278852 
-0.299477 -3.358039 1.288852 
-0.298477 -3.361039 1.298852 
-0.306477 -3.358039 1.307852 
-0.308477 -3.348039 1.337852 
-0.311477 -3.334039 1.348852 
-0.319477 -3.352039 1.361852 
-0.320477 -3.350039 1.371852 
-0.321477 -3.345039 1.392852 
-0.100477 -3.315039 1.396852 
-0.095477 -3.309039 1.396852 
-0.094477 -3.309039 1.406852 
-0.101477 -3.309039 1.406852 
-0.095477 -3.308039 1.416852 
-0.102477 -3.306039 1.417852 
-0.095477 -3.307039 1.426852 
-0.101477 -3.307039 1.426852 
-0.084477 -3.309039 1.417852 
-0.085477 -3.304039 1.428852 
-0.084477 -3.306039 1.448852 
-0.065477 -3.299039 1.506852 
-0.085477 -3.304039 1.458852 
-0.085477 -3.300039 1.468852 
-0.073477 -3.302039 1.466852 
-0.085477 -3.301039 1.478852 
-0.073477 -3.298039 1.476852 
-0.074477 -3.297039 1.486852 
-0.085477 -3.299039 1.488852 
-0.073477 -3.300039 1.495852 
-0.073477 -3.299039 1.506852 
-0.074477 -3.295039 1.516852 
-0.066477 -3.292039 1.516852 
-0.317477 -3.358039 1.451852 
-0.319477 -3.350039 1.432852 
-0.320477 -3.349039 1.442852 
-0.308477 -3.348039 1.467852 
-0.299477 -3.350039 1.488852 
-0.299477 -3.351039 1.498852 
-0.287477 -3.358039 1.508852 
-0.289477 -3.349039 1.519852 
-0.388477 -3.366039 1.276852 
-0.391477 -3.356039 1.287852 
-0.390477 -3.357039 1.297852 
-0.390477 -3.356039 1.307852 
-0.394477 -3.372039 1.317852 
-0.391477 -3.355039 1.317852 
-0.391477 -3.353039 1.327852 
-0.380477 -3.358039 1.337852 
-0.391477 -3.351039 1.357852 
-0.392477 -3.349039 1.367852 
-0.392477 -3.345039 1.377852 
-0.392477 -3.347039 1.387852 
-0.389477 -3.359039 1.417852 
-0.392477 -3.349039 1.407852 
-0.389477 -3.361039 1.427852 
-0.383477 -3.343039 1.438852 
-0.384477 -3.340039 1.448852 
-0.377477 -3.370039 1.477852 
-0.379477 -3.360039 1.467852 
-0.383477 -3.342039 1.458852 
-0.374477 -3.329039 1.516852 
-0.325477 -3.552039 1.525852 
-0.054477 -3.294039 1.567852 
-0.074477 -3.295039 1.526852 
-0.065477 -3.295039 1.526852 
-0.073477 -3.299039 1.536852 
-0.065477 -3.295039 1.536852 
-0.065477 -3.293039 1.546852 
-0.066477 -3.292039 1.556852 
-0.066477 -3.290039 1.566852 
-0.065477 -3.292039 1.576852 
-0.056477 -3.284039 1.577852 
-0.055477 -3.287039 1.627852 
-0.045477 -3.276039 1.627852 
-0.054477 -3.295039 1.637852 
-0.044477 -3.280039 1.637852 
-0.038477 -3.275039 1.638852 
-0.066477 -3.291039 1.586852 
-0.056477 -3.286039 1.587852 
-0.056477 -3.285039 1.597852 
-0.056477 -3.284039 1.607852 
-0.055477 -3.286039 1.617852 
-0.045477 -3.275039 1.647852 
-0.037477 -3.278039 1.668852 
-0.038477 -3.273039 1.679852 
-0.058477 -3.271039 1.648852 
-0.045477 -3.273039 1.657852 
-0.056477 -3.280039 1.668852 
-0.045477 -3.274039 1.667852 
-0.045477 -3.274039 1.677852 
-0.045477 -3.270039 1.688852 
-0.045477 -3.269039 1.698852 
-0.045477 -3.271039 1.708852 
-0.038477 -3.271039 1.739852 
-0.354477 -3.326039 1.526852 
-0.366477 -3.326039 1.545852 
-0.374477 -3.326039 1.546852 
-0.039477 -3.268039 1.689852 
-0.028477 -3.267039 1.709852 
-0.040477 -3.263039 1.659852 
-0.039477 -3.267039 1.699852 
-0.039477 -3.265039 1.709852 
-0.029477 -3.262039 1.719852 
-0.038477 -3.269039 1.729852 
-0.029477 -3.261039 1.730852 
-0.030477 -3.259039 1.740852 
-0.019477 -3.255039 1.739852 
-0.029477 -3.260039 1.750852 
-0.030477 -3.258039 1.760852 
-0.029477 -3.261039 1.770852 
-0.018477 -3.260039 1.769852 
-0.040477 -3.261039 1.720852 
-0.019477 -3.256039 1.779852 
-0.018477 -3.256039 1.789852 
-0.019477 -3.254039 1.800852 
-0.019477 -3.253039 1.810852 
-0.018477 -3.258039 1.820852 
-0.010477 -3.260039 1.820852 
-0.011477 -3.252039 1.831852 
-0.011477 -3.254039 1.841852 
-0.011477 -3.254039 1.861852 
-0.011477 -3.256039 1.871852 
-0.011477 -3.252039 1.851852 
-0.010477 -3.258039 1.881852 
0.000523 -3.255039 1.902852 
-0.000477 -3.250039 1.912852 
-0.000477 -3.253039 1.922852 
-0.000477 -3.250039 1.932852 
-0.000477 -3.251039 1.942852 
0.000523 -3.256039 1.952852 
0.000523 -3.259039 1.962852 
0.000523 -3.255039 1.972852 
0.001523 -3.258039 1.982852 
0.001523 -3.261039 1.992852 
0.002523 -3.263039 2.002852 
0.002523 -3.263039 2.012852 
0.002523 -3.264039 2.022852 
0.003523 -3.267039 2.032852 
0.002523 -3.268039 2.042852 
0.003523 -3.270039 2.052852 
0.003523 -3.271039 2.062852 
0.004523 -3.272039 2.072852 
0.003523 -3.270039 2.082852 
0.004523 -3.272039 2.092852 
0.004523 -3.273039 2.102852 
-0.258477 -3.795039 0.056852 
-0.283477 -3.807039 0.055852 
-0.217477 -3.736039 0.062852 
-0.218477 -3.734039 0.062852 
-0.219477 -3.736039 0.064852 
-0.220477 -3.736039 0.067852 
-0.218477 -3.734039 0.065852 
-0.221477 -3.736039 0.070852 
-0.218477 -3.734039 0.068852 
-0.218477 -3.734039 0.071852 
-0.216477 -3.731039 0.063852 
-0.215477 -3.728039 0.062852 
-0.214477 -3.728039 0.065852 
-0.216477 -3.731039 0.066852 
-0.215477 -3.728039 0.068852 
-0.216477 -3.731039 0.070852 
-0.215477 -3.728039 0.071852 
-0.220477 -3.736039 0.073852 
-0.218477 -3.732039 0.072852 
-0.219477 -3.734039 0.074852 
-0.217477 -3.731039 0.075852 
-0.221477 -3.736039 0.076852 
-0.221477 -3.736039 0.079852 
-0.217477 -3.731039 0.078852 
-0.220477 -3.734039 0.080852 
-0.218477 -3.731039 0.081852 
-0.218477 -3.731039 0.084852 
-0.246477 -3.743039 0.062852 
-0.229477 -3.744039 0.065852 
-0.237477 -3.742039 0.069852 
-0.270477 -3.747039 0.062852 
-0.255477 -3.744039 0.065852 
-0.230477 -3.741039 0.060852 
-0.226477 -3.740039 0.064852 
-0.229477 -3.741039 0.066852 
-0.214477 -3.725039 0.063852 
-0.215477 -3.726039 0.066852 
-0.214477 -3.726039 0.069852 
-0.213477 -3.723039 0.064852 
-0.213477 -3.719039 0.065852 
-0.213477 -3.723039 0.067852 
-0.214477 -3.717039 0.065852 
-0.215477 -3.715039 0.064852 
-0.216477 -3.715039 0.067852 
-0.214477 -3.723039 0.070852 
-0.213477 -3.719039 0.071852 
-0.212477 -3.719039 0.068852 
-0.214477 -3.717039 0.068852 
-0.215477 -3.715039 0.070852 
-0.216477 -3.712039 0.064852 
-0.216477 -3.712039 0.067852 
-0.216477 -3.712039 0.070852 
-0.221477 -3.734039 0.077852 
-0.224477 -3.737039 0.081852 
-0.226477 -3.737039 0.083852 
-0.225477 -3.737039 0.087852 
-0.222477 -3.735039 0.082852 
-0.221477 -3.734039 0.086852 
-0.219477 -3.732039 0.087852 
-0.216477 -3.728039 0.074852 
-0.216477 -3.726039 0.072852 
-0.214477 -3.723039 0.072852 
-0.216477 -3.726039 0.075852 
-0.217477 -3.728039 0.077852 
-0.214477 -3.725039 0.079852 
-0.214477 -3.723039 0.079852 
-0.216477 -3.719039 0.073852 
-0.216477 -3.717039 0.074852 
-0.213477 -3.717039 0.072852 
-0.215477 -3.715039 0.073852 
-0.213477 -3.723039 0.076852 
-0.215477 -3.719039 0.076852 
-0.215477 -3.719039 0.079852 
-0.215477 -3.717039 0.077852 
-0.215477 -3.715039 0.076852 
-0.215477 -3.715039 0.079852 
-0.217477 -3.728039 0.080852 
-0.216477 -3.728039 0.083852 
-0.216477 -3.726039 0.081852 
-0.214477 -3.723039 0.082852 
-0.218477 -3.728039 0.085852 
-0.215477 -3.725039 0.085852 
-0.217477 -3.723039 0.084852 
-0.216477 -3.726039 0.087852 
-0.217477 -3.723039 0.087852 
-0.216477 -3.717039 0.080852 
-0.215477 -3.719039 0.082852 
-0.215477 -3.717039 0.083852 
-0.215477 -3.715039 0.082852 
-0.216477 -3.719039 0.085852 
-0.215477 -3.717039 0.086852 
-0.215477 -3.715039 0.086852 
-0.244477 -3.699039 0.071852 
-0.247477 -3.699039 0.067852 
-0.246477 -3.699039 0.076852 
-0.245477 -3.699039 0.074852 
-0.235477 -3.698039 0.084852 
-0.215477 -3.710039 0.064852 
-0.216477 -3.707039 0.067852 
-0.214477 -3.709039 0.068852 
-0.214477 -3.709039 0.071852 
-0.216477 -3.707039 0.070852 
-0.218477 -3.704039 0.067852 
-0.219477 -3.702039 0.068852 
-0.222477 -3.700039 0.066852 
-0.218477 -3.704039 0.070852 
-0.220477 -3.702039 0.070852 
-0.222477 -3.700039 0.069852 
-0.230477 -3.697039 0.070852 
-0.215477 -3.712039 0.073852 
-0.215477 -3.710039 0.073852 
-0.216477 -3.707039 0.073852 
-0.215477 -3.711039 0.077852 
-0.216477 -3.710039 0.076852 
-0.216477 -3.710039 0.079852 
-0.216477 -3.707039 0.076852 
-0.217477 -3.707039 0.079852 
-0.214477 -3.712039 0.080852 
-0.214477 -3.711039 0.083852 
-0.216477 -3.710039 0.082852 
-0.217477 -3.707039 0.082852 
-0.215477 -3.711039 0.085852 
-0.216477 -3.710039 0.085852 
-0.217477 -3.707039 0.085852 
-0.218477 -3.704039 0.073852 
-0.220477 -3.702039 0.074852 
-0.223477 -3.700039 0.072852 
-0.223477 -3.700039 0.075852 
-0.219477 -3.704039 0.079852 
-0.218477 -3.704039 0.076852 
-0.222477 -3.702039 0.079852 
-0.221477 -3.702039 0.076852 
-0.223477 -3.700039 0.078852 
-0.219477 -3.704039 0.082852 
-0.222477 -3.702039 0.082852 
-0.224477 -3.700039 0.081852 
-0.221477 -3.704039 0.088852 
-0.219477 -3.704039 0.085852 
-0.220477 -3.702039 0.085852 
-0.222477 -3.702039 0.088852 
-0.223477 -3.700039 0.084852 
-0.224477 -3.700039 0.087852 
-0.220477 -3.736039 0.107852 
-0.235477 -3.738039 0.098852 
-0.237477 -3.737039 0.098852 
-0.243477 -3.738039 0.114852 
-0.226477 -3.737039 0.089852 
-0.231477 -3.738039 0.090852 
-0.231477 -3.738039 0.094852 
-0.222477 -3.735039 0.088852 
-0.220477 -3.732039 0.089852 
-0.221477 -3.735039 0.092852 
-0.222477 -3.735039 0.094852 
-0.219477 -3.731039 0.093852 
-0.227477 -3.737039 0.098852 
-0.224477 -3.735039 0.097852 
-0.220477 -3.732039 0.096852 
-0.221477 -3.732039 0.098852 
-0.223477 -3.735039 0.100852 
-0.222477 -3.732039 0.101852 
-0.218477 -3.728039 0.089852 
-0.217477 -3.726039 0.090852 
-0.217477 -3.723039 0.090852 
-0.216477 -3.728039 0.092852 
-0.218477 -3.728039 0.095852 
-0.216477 -3.726039 0.093852 
-0.216477 -3.723039 0.093852 
-0.214477 -3.719039 0.089852 
-0.215477 -3.715039 0.089852 
-0.214477 -3.717039 0.090852 
-0.214477 -3.719039 0.092852 
-0.216477 -3.719039 0.094852 
-0.214477 -3.717039 0.093852 
-0.215477 -3.715039 0.095852 
-0.216477 -3.715039 0.091852 
-0.217477 -3.728039 0.098852 
-0.216477 -3.726039 0.096852 
-0.216477 -3.723039 0.096852 
-0.216477 -3.726039 0.099852 
-0.217477 -3.723039 0.099852 
-0.219477 -3.728039 0.100852 
-0.216477 -3.726039 0.102852 
-0.215477 -3.723039 0.103852 
-0.215477 -3.717039 0.096852 
-0.214477 -3.719039 0.098852 
-0.213477 -3.714039 0.099852 
-0.213477 -3.719039 0.101852 
-0.212477 -3.717039 0.100852 
-0.213477 -3.715039 0.101852 
-0.214477 -3.717039 0.102852 
-0.225477 -3.735039 0.106852 
-0.226477 -3.735039 0.111852 
-0.221477 -3.732039 0.104852 
-0.221477 -3.732039 0.107852 
-0.223477 -3.735039 0.109852 
-0.223477 -3.732039 0.110852 
-0.229477 -3.736039 0.113852 
-0.224477 -3.732039 0.112852 
-0.223477 -3.732039 0.116852 
-0.223477 -3.732039 0.119852 
-0.234477 -3.736039 0.114852 
-0.219477 -3.728039 0.104852 
-0.219477 -3.728039 0.106852 
-0.216477 -3.726039 0.105852 
-0.216477 -3.723039 0.106852 
-0.219477 -3.726039 0.107852 
-0.219477 -3.728039 0.109852 
-0.218477 -3.726039 0.111852 
-0.215477 -3.723039 0.109852 
-0.215477 -3.719039 0.104852 
-0.215477 -3.717039 0.105852 
-0.213477 -3.719039 0.107852 
-0.212477 -3.714039 0.105852 
-0.214477 -3.715039 0.107852 
-0.212477 -3.719039 0.111852 
-0.213477 -3.717039 0.108852 
-0.214477 -3.717039 0.111852 
-0.214477 -3.715039 0.110852 
-0.217477 -3.728039 0.113852 
-0.217477 -3.726039 0.114852 
-0.215477 -3.723039 0.112852 
-0.221477 -3.726039 0.116852 
-0.217477 -3.723039 0.114852 
-0.219477 -3.728039 0.116852 
-0.219477 -3.728039 0.119852 
-0.218477 -3.723039 0.117852 
-0.214477 -3.719039 0.113852 
-0.216477 -3.719039 0.115852 
-0.214477 -3.717039 0.114852 
-0.213477 -3.714039 0.114852 
-0.216477 -3.717039 0.116852 
-0.215477 -3.719039 0.119852 
-0.217477 -3.717039 0.119852 
-0.215477 -3.715039 0.116852 
-0.216477 -3.715039 0.119852 
-0.245477 -3.735039 0.126852 
-0.226477 -3.733039 0.121852 
-0.225477 -3.732039 0.124852 
-0.220477 -3.728039 0.127852 
-0.236477 -3.734039 0.123852 
-0.222477 -3.728039 0.130852 
-0.219477 -3.732039 0.132852 
-0.221477 -3.728039 0.133852 
-0.224477 -3.729039 0.135852 
-0.218477 -3.726039 0.120852 
-0.219477 -3.728039 0.122852 
